# .PCD v0.7 - Point Cloud Data file format
VERSION 0.7
FIELDS x y z rgb
SIZE 4 4 4 4
TYPE F F F F
COUNT 1 1 1 1
WIDTH 962
HEIGHT 1
VIEWPOINT 0 0 0 1 0 0 0
POINTS 962
DATA ascii
-0.0048586875 0.037476625 0.70527011 1.3030338e-39
-0.0021292744 0.037217639 0.70523548 1.3033953e-39
0.00084782991 0.037233289 0.70514083 1.0268085e-39
0.0038256655 0.037982386 0.70517433 1.3019492e-39
0.0068050544 0.037959106 0.70503944 1.3015877e-39
0.013880856 0.037591334 0.70511431 1.394505e-39
0.017238267 0.037233315 0.70533007 1.2111955e-39
0.020224957 0.037244406 0.7056042 1.0271616e-39
0.02321385 0.037255634 0.70583206 1.2115528e-39
0.026206074 0.037268192 0.70605683 1.1193586e-39
0.029199366 0.037281785 0.7062456 1.2122731e-39
0.032205824 0.037322812 0.7064389 1.1200775e-39
0.035214629 0.037349988 0.70668554 8.4385072e-40
0.038243659 0.037394337 0.70705646 8.4385213e-40
0.040997073 0.037144564 0.70753211 7.5237396e-40
-0.013801448 0.040443417 0.70540607 1.2101137e-39
-0.011072641 0.040233161 0.70583165 1.3023093e-39
-0.0080966111 0.040252637 0.70621079 1.5778144e-39
-0.0051152399 0.040261142 0.70636898 1.4856174e-39
-0.0021311787 0.040252339 0.70631921 1.393063e-39
0.00085058634 0.040261015 0.70612717 1.3012275e-39
0.0038317405 0.040243611 0.70585036 1.3012275e-39
0.0068115178 0.040233783 0.70562702 1.3934218e-39
0.0097915279 0.040210243 0.70552254 1.3934204e-39
0.012776369 0.040238932 0.70561934 1.4856146e-39
0.015760947 0.040242448 0.70587814 1.393419e-39
0.019213719 0.040148105 0.70626253 1.3015835e-39
0.022510057 0.040320229 0.70680076 1.4859733e-39
0.025503399 0.040319834 0.70716709 1.578169e-39
0.02849846 0.040311091 0.70743835 1.578169e-39
0.031509299 0.040368881 0.70760328 1.4859747e-39
0.035242371 0.039616603 0.70741016 1.3023051e-39
0.037483163 0.039594498 0.70761114 1.3023051e-39
0.038997278 0.039620355 0.70783985 1.2101095e-39
-0.02218052 0.044082489 0.70540422 2.038431e-39
-0.019741006 0.043583483 0.70611435 2.222458e-39
-0.017065251 0.04325192 0.70679986 2.3146536e-39
-0.014078804 0.042507626 0.70683235 1.7622001e-39
-0.011098386 0.04254064 0.70733052 1.8536768e-39
-0.0081137987 0.042562183 0.70763999 1.852595e-39
-0.0051247845 0.042606182 0.70777756 1.7603994e-39
-0.0021335129 0.042550825 0.70766133 1.852595e-39
0.00085846189 0.042518646 0.7073735 1.5760082e-39
0.0040974827 0.04300252 0.70722085 1.3923344e-39
0.0068317079 0.043244541 0.70697796 1.48453e-39
0.0098110251 0.043244235 0.7067095 1.48453e-39
0.012797097 0.043281104 0.70674717 1.4848915e-39
0.015794506 0.043323733 0.70701665 1.4845314e-39
0.018549772 0.043116983 0.70735794 1.3923358e-39
0.021050941 0.042639628 0.70759875 1.576727e-39
-0.026078515 0.046754189 0.70630032 2.3157312e-39
-0.023002667 0.045626324 0.70691419 1.9465913e-39
-0.010399225 0.011238381 0.7109406 3.7116445e-39
-0.0081406916 0.011255835 0.71061891 3.2495901e-39
-0.0048939688 0.010765336 0.71055996 2.9733634e-39
-0.0021493039 0.010501188 0.71063858 2.789691e-39
0.00084919989 0.011218618 0.71041381 2.42127e-39
0.0038487492 0.011217589 0.7105307 2.0535679e-39
0.0068484759 0.011217826 0.71058989 1.8702556e-39
0.0098472349 0.011249742 0.71054184 1.6858643e-39
0.012845868 0.011253576 0.71042687 1.3170818e-39
0.016096842 0.010766766 0.71051121 1.3167259e-39
0.018848961 0.010491724 0.71057445 1.2252491e-39
0.021594012 0.010764671 0.71049792 1.0408579e-39
0.024845663 0.011249519 0.71046305 9.4866224e-40
0.027865421 0.011239231 0.71079993 7.6498985e-40
-0.031393439 0.014188895 0.71074128 1.2817722e-38
-0.029139999 0.01420799 0.71064168 3.1494631e-39
-0.026144428 0.014231361 0.71073514 6.6572285e-39
-0.023151407 0.014199876 0.71086806 5.0870259e-39
-0.020150261 0.014219596 0.71083748 1.2362559e-38
-0.017139319 0.014246168 0.71058983 2.0191942e-38
-0.013892807 0.013717909 0.71041375 4.8097188e-39
-0.011140259 0.013460916 0.71009916 3.3410725e-39
-0.0081340661 0.013470616 0.70967466 2.6971422e-39
-0.0051373085 0.013474279 0.70941591 2.2361641e-39
-0.0021458457 0.013461849 0.70938581 2.1439684e-39
0.00084810657 0.013458253 0.70949525 1.9602974e-39
0.00384469 0.013447728 0.70964515 1.6844294e-39
0.006841029 0.013443046 0.70971984 1.5014773e-39
0.0098362118 0.013450215 0.7096771 1.1330549e-39
0.01283024 0.013456549 0.70954245 1.1330549e-39
0.015822923 0.013459263 0.70936799 1.0408593e-39
0.018814959 0.013472877 0.70924854 1.0408607e-39
0.021810843 0.013468805 0.7092641 6.7315716e-40
0.024813456 0.013470781 0.70944393 6.7315716e-40
0.027833475 0.013455417 0.70979065 5.8096153e-40
0.030843848 0.013490648 0.71025813 5.8096153e-40
0.03362349 0.013734002 0.71065235 5.7988253e-40
0.036141101 0.014241324 0.71090066 3.9549127e-40
-0.031327523 0.015758375 0.70912194 1.2817722e-38
-0.029083345 0.015704595 0.70924133 3.2409399e-39
-0.02584308 0.016237153 0.70922911 3.6158559e-39
-0.023103094 0.016400311 0.7094655 5.8263888e-39
-0.020116029 0.016427025 0.70965189 6.9291336e-39
-0.017115761 0.016477687 0.70953858 1.346853e-38
-0.01411503 0.016460497 0.70924079 4.624603e-39
-0.011118634 0.016440066 0.70887172 3.6158531e-39
-0.0081235776 0.016429931 0.70852333 3.1555938e-39
-0.0051332572 0.016413059 0.70830184 2.8790069e-39
-0.0018935776 0.0161686 0.70836264 2.6035018e-39
0.00084784336 0.016420778 0.70840794 2.5113048e-39
0.003839364 0.016426958 0.70859867 2.0510483e-39
0.0068313917 0.016435582 0.70870924 1.5915121e-39
0.0098234005 0.016423579 0.70869899 1.4996766e-39
0.012813222 0.016425725 0.70855659 1.315284e-39
0.015801298 0.016418722 0.70835757 2.4194651e-39
0.018542474 0.016172701 0.70827705 2.1443202e-39
0.021788493 0.015679225 0.70840514 6.7315716e-40
0.025029236 0.016188113 0.70838815 6.7279702e-40
0.027779685 0.01644926 0.70860028 5.8060139e-40
0.030799722 0.016453948 0.70907539 4.8804703e-40
0.033827946 0.016466031 0.70965743 4.876869e-40
0.036869112 0.016467407 0.71023637 3.9513113e-40
0.039626822 0.016753986 0.71060622 3.947724e-40
0.042897824 0.01727188 0.71090347 3.947724e-40
-0.023048816 0.018584182 0.70805103 4.9955449e-39
-0.020080457 0.018647458 0.70844173 8.5886452e-39
-0.017093182 0.018695669 0.70847142 6.1897581e-39
-0.014097296 0.018681267 0.70827168 5.5447502e-39
-0.011851786 0.018676309 0.70808679 4.5323976e-39
0.0068262219 0.018654134 0.70802319 2.1414405e-39
0.0098152049 0.018657725 0.70803088 1.9570506e-39
0.030770199 0.018674979 0.70827669 3.947696e-40
0.03377571 0.019441336 0.70858073 3.0257397e-40
0.036810298 0.019455589 0.70921576 3.0257397e-40
0.039841197 0.019475324 0.70978111 3.0257397e-40
0.042871688 0.01949323 0.71025491 4.8588623e-40
0.045901459 0.01950803 0.71063256 2.1001821e-40
0.048920814 0.020269517 0.71079618 1.1746384e-40
0.037017159 0.022180337 0.70836914 3.018509e-40
0.039786965 0.022454856 0.70887291 3.0149217e-40
0.042832259 0.022465948 0.70944959 2.089378e-40
0.045857277 0.022493256 0.70992589 2.0893921e-40
0.048891671 0.022508822 0.71032649 1.1674358e-40
0.051929332 0.022521522 0.71068388 1.1674358e-40
0.054949362 0.023289625 0.71087623 1.1638484e-40
0.040014114 0.02516721 0.70817196 2.089364e-40
0.042793743 0.025438683 0.70868742 2.089364e-40
0.045828864 0.025463948 0.70925158 2.0858047e-40
0.04886321 0.025485951 0.70972264 1.1638484e-40
0.051898915 0.025504405 0.71012157 2.4189214e-41
0.054927092 0.025526565 0.71047127 2.4189214e-41
0.057964653 0.025540622 0.71077007 2.4189214e-41
0.060989864 0.026302079 0.71089137 1.1638484e-40
0.04199877 0.027667681 0.70803928 2.089364e-40
0.043528784 0.02841782 0.70820969 3.007719e-40
0.045791849 0.028443573 0.70863408 1.1674218e-40
0.048822399 0.028471375 0.70916063 1.1638484e-40
0.051871609 0.028488828 0.70959133 2.382908e-41
0.054894608 0.02851277 0.70996141 2.382908e-41
0.057923187 0.028532758 0.71027541 2.4546545e-41
0.060956106 0.028548419 0.71052694 2.4187813e-41
0.063987806 0.028559336 0.71069163 2.0785881e-40
0.067012616 0.028566841 0.71076357 2.0785881e-40
0.070029251 0.028573096 0.71076316 3.0005303e-40
0.073035151 0.028584847 0.71075416 4.8372403e-40
0.07605499 0.028595379 0.71080691 6.6811248e-40
0.078836158 0.028860828 0.7109645 1.0365335e-39
0.046011172 0.03118214 0.7083205 1.1638064e-40
0.048786156 0.031456131 0.70879257 1.1637924e-40
0.051831484 0.031482354 0.70925397 2.4183609e-41
0.054857343 0.031504605 0.70965135 2.3823475e-41
0.057897381 0.031524163 0.70996547 1.1601911e-40
0.06093007 0.031540956 0.71021557 1.1601911e-40
0.06396576 0.031555958 0.71037847 1.1601911e-40
0.066981718 0.031564008 0.71044278 1.1566037e-40
0.069997303 0.03157049 0.71045011 2.0749727e-40
0.073017754 0.03157872 0.71046317 3.9152699e-40
0.076056369 0.03159244 0.71054667 4.8336109e-40
0.079083294 0.031606499 0.71077657 6.6739081e-40
0.046019822 0.034678351 0.70830268 3.8791725e-40
0.048790947 0.034450527 0.70879304 2.0388753e-40
0.051833656 0.034481313 0.7092756 2.0316866e-40
0.054873545 0.034507614 0.70966601 3.8719979e-40
0.057906952 0.034527354 0.70998818 2.9500556e-40
0.060948975 0.034554832 0.71024114 2.0316866e-40
0.063975714 0.03456942 0.71039683 2.0316866e-40
0.066998586 0.034579974 0.71049505 3.8684105e-40
0.070020877 0.034590285 0.71055222 4.7867515e-40
0.073040545 0.034594972 0.71062791 4.7867375e-40
0.076074652 0.034611814 0.71071684 4.7831221e-40
0.078860812 0.034376144 0.71084994 5.7086797e-40
0.043028653 0.037677325 0.70812386 9.3568342e-40
0.045809142 0.037457231 0.70870566 7.5201243e-40
0.048854258 0.037498642 0.70927697 6.5945806e-40
0.051898956 0.037535142 0.7097494 6.5945806e-40
0.054928444 0.037552889 0.71012402 7.5129356e-40
0.057964012 0.037576221 0.71043611 7.5129496e-40
0.061003108 0.037605654 0.71068531 7.5129496e-40
0.064009376 0.036848072 0.71070129 6.6018113e-40
0.067036808 0.036861073 0.71083057 7.5237676e-40
0.070059247 0.036861237 0.71093285 7.5237676e-40
0.072322585 0.036853828 0.71098465 7.5237676e-40
0.033789244 0.041203648 0.70808762 1.3941364e-39
0.036755137 0.041054677 0.70820296 1.3023009e-39
0.0400078 0.040603194 0.70843852 1.1182698e-39
0.042832542 0.040479559 0.70898032 1.3023009e-39
0.045884412 0.040528674 0.70976233 1.2101053e-39
0.048914138 0.040532973 0.7103287 1.1179097e-39
0.051704809 0.040333372 0.71060044 1.0260742e-39
0.054980218 0.039851509 0.71075469 1.1182698e-39
-0.014106481 0.044098612 0.70832407 2.0369863e-39
-0.011115961 0.044155505 0.70866013 2.2210174e-39
-0.0081266081 0.04414963 0.70886981 2.4043255e-39
-0.005133376 0.044204425 0.70900077 2.1277386e-39
-0.0021385176 0.044161476 0.70892382 2.1277386e-39
0.00086415187 0.044044752 0.7085399 2.2206545e-39
0.0031090074 0.044030514 0.70815772 1.4841685e-39
0.019545957 0.044085465 0.70810747 1.3923358e-39
0.022081908 0.043709829 0.70841348 1.576727e-39
0.024859717 0.043545783 0.70892501 1.6689241e-39
0.027847633 0.043490283 0.70939422 1.6689226e-39
0.030863162 0.043529525 0.70968837 1.4848915e-39
0.03387757 0.043576587 0.70983839 1.3012205e-39
0.03684834 0.043415625 0.70981395 1.209385e-39
0.0395835 0.043092977 0.7099275 1.2097438e-39
0.042934012 0.042859707 0.71047682 1.3019408e-39
-0.023109484 0.047123317 0.70901859 2.5919551e-39
-0.020324461 0.046397828 0.70943063 3.4206354e-39
-0.017105805 0.045836851 0.70968688 2.7738283e-39
-0.01412785 0.045814764 0.71003324 2.4965211e-39
-0.011137951 0.045777675 0.71013278 2.8649435e-39
-0.0081423214 0.045730669 0.71025211 3.7865355e-39
-0.0051431772 0.045829438 0.71040851 2.7723835e-39
-0.0021442864 0.045813508 0.71043146 2.0348199e-39
0.0008545061 0.045798305 0.71011251 3.1411689e-39
0.0038506752 0.045746196 0.70950055 1.39197e-39
0.0068597882 0.046377648 0.7094717 1.3923358e-39
0.0098451246 0.046358731 0.70885754 1.3923358e-39
0.012834824 0.046392538 0.70868987 1.4845314e-39
0.015821481 0.046317246 0.70885402 1.3923358e-39
0.018802386 0.046248905 0.7093932 1.3001401e-39
0.021598129 0.046179816 0.71008134 1.4845314e-39
0.024162339 0.045889992 0.71056926 1.6689226e-39
-0.026158594 0.048643272 0.71017253 2.5926768e-39
-0.011179873 0.0053081019 0.71391439 5.5519627e-39
-0.008174167 0.0052793054 0.71354949 6.1966105e-39
-0.005166206 0.0052710259 0.71334779 4.4474144e-39
-0.0021583727 0.0052643321 0.71333414 2.6985771e-39
0.00084985048 0.0052860412 0.71343708 2.3301548e-39
0.0038603169 0.0052945358 0.71357387 2.1457635e-39
0.0068763583 0.0052610557 0.71369416 2.2372403e-39
0.0098890513 0.0052808542 0.71372646 2.2372403e-39
0.012902581 0.00525305 0.71367747 2.1450446e-39
0.015913337 0.0052794204 0.71359485 1.9613722e-39
0.018926168 0.0052779955 0.71359104 1.8698955e-39
0.021943789 0.0052649975 0.71369243 1.8698983e-39
0.024970008 0.0052325916 0.71388233 1.9620953e-39
-0.019487577 0.0082422653 0.71387935 9.2239294e-39
-0.017215922 0.0082535278 0.71353394 6.1919245e-39
-0.014204205 0.0074912664 0.71336401 4.9998609e-39
-0.011186337 0.0074814176 0.71282464 5.2764464e-39
-0.0081675919 0.0074965837 0.7123971 6.2884376e-39
-0.0051620207 0.0074758949 0.71217203 3.8031198e-39
-0.0021550222 0.0074777557 0.71214551 2.7904098e-39
0.00085163076 0.0074721896 0.71222639 2.6063787e-39
0.0038566473 0.0075072115 0.71232456 2.5145418e-39
0.0068654804 0.0074814362 0.71239734 2.5141831e-39
0.0098735113 0.0074552242 0.71240956 2.3297918e-39
0.012879772 0.0074524502 0.71234369 2.0535665e-39
0.015886415 0.007454691 0.71225464 1.7777012e-39
0.018892892 0.0074871946 0.7122193 1.6858657e-39
0.021906352 0.007476768 0.71232164 1.5014745e-39
0.024923103 0.0074832118 0.71251363 1.5014759e-39
0.027944341 0.0074904589 0.71276802 1.4092789e-39
0.030973068 0.007486234 0.7130602 1.1330521e-39
0.033996709 0.0075127585 0.71338433 1.0408565e-39
0.037021093 0.008260658 0.71345758 8.5574775e-40
0.039302424 0.0082606096 0.71375763 6.7135649e-40
-0.031504501 0.01128309 0.71331102 1.2634778e-38
-0.028493017 0.010585868 0.71348584 3.3367481e-39
-0.025969636 0.010825858 0.71310145 6.1011877e-39
-0.023216305 0.010529724 0.71304494 1.3651496e-38
-0.020207519 0.010492593 0.71279818 1.8809387e-38
-0.01718677 0.010504424 0.71242619 1.5952045e-38
-0.014177341 0.010478638 0.71194953 5.9167768e-39
-0.011419905 0.010214174 0.71157622 5.092058e-39
-0.0081550088 0.0097383512 0.7113058 5.2764492e-39
-0.0059000063 0.0097496612 0.71108776 4.1701017e-39
0.00084989844 0.009727831 0.71110094 2.6982156e-39
0.0038510857 0.0097436812 0.71119416 2.4223476e-39
0.0068539539 0.00974447 0.71125537 2.2379563e-39
0.0098563554 0.0097581372 0.71122205 2.1457607e-39
0.012857743 0.0097428653 0.71112692 1.6847825e-39
0.01510819 0.0097325398 0.71104372 1.5014731e-39
0.022615926 0.0097458214 0.71106368 1.0408579e-39
0.024876514 0.0097403787 0.7112332 9.4866224e-40
0.027893394 0.0097509492 0.71155506 8.5682675e-40
0.030895678 0.010517733 0.71155572 6.7315435e-40
0.033916559 0.010542271 0.71200353 8.5610788e-40
0.036962748 0.010527254 0.71247667 5.7951959e-40
0.040003192 0.01052804 0.71289486 5.7951959e-40
0.043034516 0.010541295 0.71319318 7.6355212e-40
0.046061188 0.010555341 0.71337539 7.6355212e-40
0.049091391 0.010549521 0.71347231 1.1323374e-39
0.052115921 0.010558458 0.71355063 1.3163672e-39
0.055156197 0.010543884 0.71367604 1.5925897e-39
0.058185637 0.01129754 0.71369141 1.500034e-39
0.060464378 0.01132056 0.713934 1.591868e-39
-0.03146527 0.012595453 0.71220469 1.290992e-38
-0.029199628 0.012648867 0.7119664 2.7817624e-39
-0.026185507 0.01274282 0.71184802 8.8684887e-39
-0.023180338 0.0127323 0.71177018 8.1258832e-39
-0.020170497 0.012746622 0.71161342 1.9365807e-38
-0.017157877 0.012751854 0.71132427 2.2956001e-38
-0.014907327 0.012721283 0.71102148 9.6838286e-39
0.034640521 0.012764283 0.71120524 5.7987973e-40
0.037163042 0.013263726 0.71143687 4.8732536e-40
0.039948955 0.013506908 0.71176624 5.7916226e-40
0.042972151 0.013529637 0.71208829 4.8696663e-40
0.045999542 0.01353778 0.71231073 4.8696663e-40
0.049025837 0.013542716 0.71246421 6.7135789e-40
0.052056953 0.013546641 0.71264201 8.5538902e-40
0.055093203 0.013551627 0.71285063 8.5574775e-40
0.058143985 0.013548064 0.71311486 7.6391085e-40
0.061195675 0.013561486 0.71347064 1.0397775e-39
0.063984163 0.013836578 0.71376538 1.5915093e-39
0.066523105 0.014346219 0.71393013 2.3272681e-39
0.0406739 0.015736144 0.71109849 3.947724e-40
0.042932868 0.015765291 0.71135259 3.947724e-40
0.045948077 0.016521923 0.71141535 3.947724e-40
0.048977856 0.016528521 0.71165484 3.947724e-40
0.051995706 0.016555635 0.7118904 3.947724e-40
0.055038661 0.016556451 0.71216261 6.7063902e-40
0.058081746 0.01656704 0.71247268 6.7063762e-40
0.061132282 0.016576197 0.71280342 6.7027749e-40
0.064189181 0.01657973 0.71311176 9.4686298e-40
0.067234427 0.016597813 0.71339267 1.9584884e-39
0.070279062 0.016620612 0.71365416 2.9704753e-39
0.073308021 0.017387018 0.71367192 3.7980681e-39
0.076376863 0.017382553 0.71392995 7.7502063e-39
0.048938662 0.018778767 0.71112484 2.1037834e-40
0.051964957 0.019532908 0.7112565 2.0965947e-40
0.055002477 0.019544924 0.71156532 3.936906e-40
0.058042977 0.019558489 0.71188116 4.855261e-40
0.061087549 0.019571006 0.71219152 4.855275e-40
0.064134225 0.019578971 0.71245372 5.7772313e-40
0.067172863 0.019591669 0.71265447 8.5394708e-40
0.070212178 0.019601541 0.71281433 1.4060391e-39
0.073248662 0.019620499 0.71297556 2.2343536e-39
0.076307356 0.019616062 0.71317053 3.2459734e-39
0.079362668 0.01962794 0.71338993 6.4612765e-39
0.082154848 0.019908957 0.71361893 6.734611e-39
0.084712535 0.020415541 0.71379989 6.2721853e-39
0.054964125 0.021798251 0.71114922 3.007761e-40
0.058007024 0.022547737 0.71131957 2.0858047e-40
0.061046176 0.022561306 0.7116012 3.007761e-40
0.064077675 0.022579402 0.71182638 4.8480723e-40
0.067121841 0.022575283 0.71197194 5.7664132e-40
0.070147991 0.022587754 0.71206063 8.5322541e-40
0.073177643 0.022595361 0.7121262 1.0372565e-39
0.076223664 0.022592293 0.71223146 1.4056761e-39
0.079266071 0.022616187 0.71243685 3.3367243e-39
0.082322709 0.022650953 0.71281976 4.4380173e-39
0.08544495 0.022656068 0.71335477 5.077612e-39
0.087777145 0.023428766 0.71371353 5.2627249e-39
0.061006606 0.02481064 0.71116924 1.1638484e-40
0.064030558 0.025567798 0.71121496 3.0005584e-40
0.067056082 0.025577953 0.71131676 3.0041457e-40
0.070078172 0.025583899 0.71134335 5.7627979e-40
0.073098511 0.025590032 0.71134448 7.6031092e-40
0.076123089 0.025599737 0.71138757 8.5286248e-40
0.079158604 0.02562093 0.71158981 1.7733726e-39
0.082240708 0.025638446 0.71202707 2.6927982e-39
0.085373484 0.025655825 0.71266109 3.7926479e-39
0.088506073 0.02569655 0.71349138 4.7117161e-39
0.079875745 0.027868642 0.71122658 1.5886212e-39
0.082177959 0.028631452 0.71144152 1.6808183e-39
0.085278928 0.028663369 0.71206087 2.1399817e-39
0.088448443 0.028701555 0.71296173 3.333476e-39
0.090784162 0.028753564 0.71386421 3.8852079e-39
0.082154796 0.031631701 0.71114904 1.1276473e-39
0.085267544 0.031661689 0.71166664 1.4038684e-39
0.088321783 0.031710666 0.71248949 2.5977215e-39
0.090717539 0.031757992 0.71339786 3.0568962e-39
0.079888165 0.035390448 0.71103454 6.6126294e-40
0.082175992 0.034651387 0.71116531 7.548977e-40
0.085252844 0.034677941 0.7115739 1.1240361e-39
0.08829093 0.03471221 0.71227771 1.5839297e-39
0.091514833 0.034783199 0.71344674 2.0434631e-39
0.064047009 0.038376071 0.71107769 9.3460442e-40
0.067073517 0.03837125 0.71125925 1.0268e-39
0.070105195 0.038381714 0.71139932 9.3460302e-40
0.07337077 0.037884425 0.71134329 9.3532328e-40
0.076137081 0.037639029 0.71131068 9.3532328e-40
0.079165563 0.037647627 0.71139681 1.0271588e-39
0.082231328 0.037698243 0.71154761 1.2119088e-39
0.085300811 0.037725285 0.7117514 1.6725212e-39
0.08836668 0.037739363 0.71225762 1.7639937e-39
0.091514923 0.037799485 0.71330297 2.0394974e-39
0.052748468 0.041364037 0.71116072 1.1182698e-39
0.055013824 0.04134227 0.71135056 1.0260742e-39
0.058038935 0.040632788 0.7113443 1.0257154e-39
0.061067808 0.040622797 0.71163297 1.0257168e-39
0.064104162 0.040614732 0.71194434 1.0260756e-39
0.067162998 0.040657725 0.7122485 1.1179125e-39
0.070219271 0.040702991 0.71248621 1.2101053e-39
0.073259331 0.040747892 0.71254855 1.3022995e-39
0.076276243 0.040767368 0.71241343 1.3022967e-39
0.079281852 0.040749971 0.71222365 1.4859663e-39
0.082312606 0.040761713 0.71220821 2.8645764e-39
0.085371532 0.040791802 0.71231055 4.4250469e-39
0.088432841 0.040787488 0.71273226 4.425407e-39
0.091518849 0.040817834 0.7134701 4.7023527e-39
0.040687788 0.044270087 0.71125698 1.2090235e-39
0.043048676 0.044533741 0.71211016 1.2090235e-39
0.04602256 0.043660227 0.71191168 1.2093836e-39
0.049049016 0.043617293 0.71230775 1.2093836e-39
0.052081943 0.043615378 0.71253228 1.2093836e-39
0.05512125 0.043665003 0.71268076 1.117188e-39
0.058168612 0.043730695 0.71289897 1.117188e-39
0.060955305 0.043491226 0.71310729 1.0249938e-39
0.064238876 0.042971153 0.71330547 1.2097452e-39
0.066552617 0.043015409 0.71372163 1.301938e-39
0.077162541 0.043150026 0.71353763 2.2202845e-39
0.079681776 0.043568406 0.71352381 3.965868e-39
0.082461797 0.043821782 0.71352065 5.6199776e-39
0.085497908 0.043851849 0.7134757 6.7212734e-39
0.088459753 0.043713808 0.71364725 6.9978589e-39
0.090721719 0.043719392 0.71392822 7.0904147e-39
-0.019394007 0.047442302 0.7110768 2.7731024e-39
-0.017157426 0.047466587 0.71144259 2.5879951e-39
-0.014163669 0.047425169 0.71159995 3.0489732e-39
-0.01116258 0.047356188 0.71159506 3.1411675e-39
-0.0081576211 0.04732503 0.71162641 3.7858124e-39
-0.0051544094 0.047464374 0.7118839 2.8638575e-39
-0.0021507342 0.047516521 0.71203011 1.9415453e-39
0.00085205724 0.047543544 0.71194303 2.9567748e-39
0.003855356 0.047487378 0.71147639 1.5752823e-39
0.022647832 0.047291264 0.7114808 1.4845314e-39
0.025192607 0.046922162 0.71184182 1.576727e-39
0.027965397 0.046685152 0.71230882 1.3926959e-39
0.03074275 0.046468131 0.71264523 1.2090235e-39
0.034024943 0.046072356 0.71261734 1.2090235e-39
0.037027255 0.045938425 0.71287543 1.2090235e-39
0.040059187 0.045899548 0.71337056 1.2090235e-39
-0.02320604 0.04874032 0.71181047 3.5128282e-39
-0.020218141 0.048862569 0.71277869 2.403601e-39
-0.017214801 0.048925288 0.71319616 2.5869161e-39
-0.014203042 0.048877981 0.71323818 3.5088696e-39
-0.011185467 0.048807975 0.7131089 3.2322827e-39
-0.0081745097 0.04890956 0.71314716 3.0478914e-39
-0.0051635946 0.049023785 0.71331018 2.4939988e-39
-0.0021493754 0.049114645 0.71356183 1.8489895e-39
0.00086428411 0.049121171 0.71369559 2.5869147e-39
0.0038768582 0.049052548 0.71349365 1.5752823e-39
0.0068926536 0.048793271 0.71264398 1.2079417e-39
0.0098923137 0.048774019 0.71193475 1.3004961e-39
0.0128902 0.048867036 0.71160436 1.3926917e-39
0.015895212 0.048823044 0.71163917 1.2083004e-39
0.018897735 0.048730668 0.71210355 1.2083004e-39
0.0219652 0.048951447 0.71338636 1.3004961e-39
-0.0059549385 -0.02495694 0.71702415 1.0236247e-38
-0.0082143927 -0.022700397 0.71683216 7.9324451e-39
-0.0052002412 -0.022688741 0.71684313 7.8402467e-39
-0.0079596546 -0.01993065 0.71688622 7.287796e-39
-0.0051952046 -0.019676261 0.71683329 7.3796301e-39
-0.0059466502 -0.017416637 0.71699101 7.1959563e-39
-0.010495816 -0.00080017385 0.71686453 1.899341e-38
-0.0082228584 -0.00081011129 0.71658814 2.0100468e-38
-0.005192488 -0.0015301242 0.71671748 7.6623631e-39
-0.0024214722 -0.0012665729 0.71663409 5.2721276e-39
0.00086203474 -0.00081629673 0.71664959 4.4434516e-39
-0.01805727 0.0022283611 0.71688336 8.4042637e-39
-0.015763925 0.0022604046 0.71638876 9.5102497e-39
-0.013491486 0.0015136504 0.71635252 1.1718251e-38
-0.011227651 0.0014917019 0.7159301 1.3284496e-38
-0.0082068425 0.0014754497 0.71558219 1.16257e-38
-0.0051836963 0.0014838586 0.71541578 6.2866425e-39
-0.0021647152 0.0014868771 0.71542305 3.7098494e-39
0.00085608318 0.0014716863 0.71557754 3.3410683e-39
0.003882753 0.0014459951 0.7158708 2.7882532e-39
0.0069085038 0.0014416906 0.71618044 2.6038606e-39
0.0099273985 0.0014712792 0.71630061 2.6960562e-39
0.01295038 0.0014892517 0.71635962 2.6045808e-39
0.015973367 0.0015162635 0.71633631 2.3290744e-39
0.018999189 0.0014801322 0.71631336 2.0535693e-39
0.022024928 0.0014598196 0.71631122 1.9624526e-39
0.025049401 0.0014687942 0.71625894 1.8706171e-39
0.028072502 0.0014897212 0.71619701 1.6865846e-39
0.031096265 0.0015150298 0.71620893 1.5940303e-39
0.034129422 0.0015179901 0.71637076 1.5007542e-39
0.036914624 0.0017657168 0.71653634 1.5933086e-39
0.040221818 0.0022390359 0.71675903 2.1464782e-39
-0.030155502 0.0052514365 0.71687794 4.9868737e-39
-0.027858505 0.0053024283 0.71653455 3.4325464e-39
-0.024579281 0.004793765 0.71642673 1.310768e-38
-0.021810465 0.004514371 0.71623635 1.3285229e-38
-0.018766638 0.0045367819 0.71575475 4.7204014e-39
-0.01649387 0.0045269937 0.71533763 4.9069521e-39
-0.014221082 0.0045243907 0.71487153 4.9065919e-39
-0.011197931 0.0037877378 0.71475524 6.7483451e-39
-0.0081878565 0.0037595059 0.71438789 6.4713995e-39
-0.0051738196 0.0037557564 0.71419477 4.5396101e-39
-0.0021610141 0.0037552351 0.71419334 2.8822495e-39
0.00085202517 0.0037608494 0.71432728 2.4216329e-39
0.0038701491 0.003735217 0.7145257 2.2368843e-39
0.0068860394 0.0037510325 0.71467781 2.1446873e-39
0.0099036237 0.0037559723 0.71474677 2.2372403e-39
0.01292016 0.0037656517 0.71469837 2.1450446e-39
0.015935017 0.0037902067 0.71461004 1.9610121e-39
0.01895225 0.0037920834 0.71461165 1.6851469e-39
0.021974113 0.0037697831 0.71470112 1.6858671e-39
0.025001034 0.0037399374 0.71483725 1.7784229e-39
0.028009474 0.0044884421 0.71448392 1.8706143e-39
0.031034116 0.0045000012 0.71462357 1.7784187e-39
0.034064177 0.0045117722 0.71485895 1.5936673e-39
0.037097991 0.0045375102 0.7152167 1.5936673e-39
0.040146895 0.0045339298 0.71560621 1.6858601e-39
0.04319622 0.0045413631 0.71598661 2.1461194e-39
0.046242457 0.0045453357 0.7162357 3.0673527e-39
0.049287483 0.0045266734 0.71635091 4.6310728e-39
0.052307922 0.0045726406 0.71630615 5.7352526e-39
0.05533478 0.0045749033 0.71624684 7.1131381e-39
0.058382839 0.0045678411 0.71641284 7.8460102e-39
0.061399195 0.0053702933 0.71643329 8.6707248e-39
0.063744098 0.0053280778 0.71696502 9.4039599e-39
-0.033171557 0.0067539392 0.71661359 1.3646038e-38
-0.030864578 0.0074994555 0.71570885 8.2158844e-39
-0.02780311 0.0075770128 0.71519369 5.917867e-39
-0.024775693 0.0075566401 0.71482563 1.5683747e-38
-0.02201796 0.0072608739 0.71469921 1.6138592e-38
-0.020246679 0.0075175483 0.71436203 1.3744032e-38
-0.017231073 0.00676372 0.71430135 5.9207326e-39
0.037044413 0.0067901686 0.7141493 1.2248862e-39
0.040342532 0.0072537968 0.71432424 9.4830071e-40
0.043121979 0.0075085559 0.71448857 1.2245289e-39
0.046145193 0.0075465073 0.71466029 1.3167245e-39
0.049178321 0.0075345687 0.71472031 1.8688193e-39
0.052201085 0.0075473827 0.71471179 2.5134628e-39
0.05522161 0.0075765513 0.71474314 4.0771788e-39
0.058256648 0.0075930762 0.71492893 6.1911832e-39
0.061310742 0.0076098922 0.71532375 7.5687059e-39
0.064415596 0.0075848172 0.71592659 9.58907e-39
0.06724713 0.0078489194 0.71646261 1.0139351e-38
0.069793619 0.008388022 0.71676576 1.0964785e-38
-0.030796861 0.0097684069 0.71427798 7.2039002e-39
0.058209348 0.0098111583 0.71411926 2.2357941e-39
0.061513521 0.01031667 0.71437621 3.2474139e-39
0.06433218 0.010567854 0.71476561 6.2826516e-39
0.067414068 0.010578174 0.71529722 9.1298911e-39
0.070498787 0.010594958 0.71584243 1.0321942e-38
0.073589377 0.010602169 0.71633428 1.077931e-38
0.076634213 0.011355131 0.71631551 1.0777504e-38
0.079706214 0.011364445 0.71657091 1.077786e-38
0.082736537 0.011478019 0.71694893 1.105409e-38
0.065029979 0.012838509 0.71417844 2.1443188e-39
0.067586854 0.013328698 0.71436608 3.7058725e-39
0.070380293 0.013607444 0.71464056 5.4521777e-39
0.073452599 0.01361773 0.71501219 7.749486e-39
0.076542296 0.013592402 0.71532762 9.7687585e-39
0.07960809 0.013600205 0.71555185 1.0594189e-38
0.082681425 0.013607556 0.7158069 1.0777855e-38
0.085785024 0.013618815 0.71627277 1.0684584e-38
0.088747405 0.014544446 0.71652299 9.8580716e-39
0.091013052 0.014679249 0.71708882 9.3985382e-39
0.073358081 0.015884597 0.71415442 5.4536168e-39
0.076439925 0.015862534 0.71443462 8.7600184e-39
0.079470433 0.016634783 0.71443415 9.5836456e-39
0.082531862 0.01664814 0.71466106 1.0042459e-38
0.085620023 0.016653337 0.71501088 1.0133571e-38
0.088719457 0.016667992 0.71544826 9.3048979e-39
0.091009744 0.016731426 0.71588188 8.6609718e-39
0.08322341 0.018901875 0.71403158 7.5596815e-39
0.085774712 0.019417331 0.71420366 7.3760063e-39
0.088613808 0.019687872 0.71463299 7.374563e-39
0.090934135 0.019715454 0.71508396 6.8210277e-39
0.088815898 0.022448901 0.71416175 6.2732685e-39
0.090834901 0.022750307 0.71472174 6.2736272e-39
0.09141174 0.025997968 0.71452367 5.7244247e-39
0.092407748 0.028790193 0.7146728 4.2525443e-39
0.094144426 0.028834976 0.71588326 6.9208015e-39
0.092344172 0.031797517 0.714194 3.1490862e-39
0.094202712 0.031852491 0.71561921 4.8953843e-39
0.094143145 0.034870557 0.7151047 3.3284286e-39
0.094024874 0.037887465 0.71466798 3.5099346e-39
0.093923829 0.04013361 0.71454138 5.6257439e-39
0.06204997 0.044561815 0.71406108 1.3012191e-39
0.064390734 0.044667307 0.71460348 1.3012191e-39
0.067707703 0.044226568 0.71489358 1.5767242e-39
0.070489153 0.043986093 0.71496576 2.3121242e-39
0.073504478 0.044022046 0.71479946 3.5052556e-39
0.076250836 0.044278909 0.71445835 4.4243196e-39
0.078753106 0.044550084 0.71427023 5.8951197e-39
0.03182276 0.047589749 0.71426862 1.2090235e-39
0.034154151 0.047787033 0.71504653 9.3315548e-40
0.037200104 0.047717623 0.71589154 1.0249924e-39
0.040242746 0.047611564 0.71667665 1.0246322e-39
0.043196231 0.046218794 0.71464223 1.2090235e-39
0.04625167 0.046208899 0.71524096 1.1168279e-39
0.04927928 0.046162378 0.71534306 1.0246322e-39
0.052286617 0.046124641 0.71504939 1.1168279e-39
0.055358872 0.046906222 0.71556574 9.3243661e-40
0.058374841 0.046821117 0.71546233 1.0246322e-39
0.061450031 0.046908248 0.71591479 1.1168265e-39
0.064527668 0.046306938 0.71601474 1.5763641e-39
0.066873699 0.046386607 0.71667707 2.1277358e-39
0.076677375 0.046210095 0.71609455 6.1688199e-39
0.079625897 0.045830902 0.71521038 6.6294351e-39
0.082638636 0.045995291 0.71504319 6.7216294e-39
0.085798979 0.046561237 0.71550274 7.3648366e-39
0.088722765 0.046158135 0.71526635 7.5499439e-39
-0.027868371 0.05068256 0.71597874 3.0518571e-39
-0.024813775 0.050669435 0.71514237 2.9607391e-39
-0.021790812 0.050579894 0.71512395 2.7716605e-39
-0.018774554 0.050517887 0.71522725 2.2181336e-39
-0.016508188 0.050490849 0.71524882 2.863503e-39
-0.014241249 0.050502297 0.71524411 3.3244797e-39
-0.011217035 0.050546229 0.71515048 3.0478914e-39
-0.0081945118 0.05055771 0.71494699 2.7713045e-39
-0.0051739239 0.050469767 0.71482182 2.3096075e-39
-0.0021565831 0.050380893 0.71489412 1.8486294e-39
0.00086528878 0.050503429 0.71532071 2.5865545e-39
0.0038923824 0.050671112 0.71578646 1.7589533e-39
0.006917269 0.050669592 0.71585518 1.2079417e-39
0.0099370657 0.050668415 0.71546739 1.2083004e-39
0.012955999 0.050605912 0.71517932 1.3004961e-39
0.015978802 0.050584041 0.71525717 1.2083004e-39
0.01901825 0.050630804 0.71588248 1.2083004e-39
0.021331381 0.050827838 0.71688175 1.0239092e-39
0.025014589 0.049013279 0.71439433 1.3926917e-39
0.02805393 0.048997276 0.71519607 1.1164649e-39
0.031116044 0.049054105 0.71607548 1.0249882e-39
-0.0044287113 0.052046698 0.71680534 2.0330206e-39
-0.0029198888 0.052109439 0.71701682 1.940825e-39
-0.014966443 -0.031819765 0.71986783 1.162351e-38
-0.012773957 -0.031845834 0.7193535 1.171426e-38
-0.010014599 -0.032149207 0.71911711 1.2172352e-38
-0.0079835104 -0.031617559 0.71895289 1.1987961e-38
-0.0052095898 -0.031880748 0.71947032 1.1895405e-38
-0.0029239629 -0.03115282 0.71964127 1.1710655e-38
-0.014991166 -0.028799111 0.71919501 1.0056912e-38
-0.012764622 -0.028798629 0.71836209 1.0146574e-38
-0.01051762 -0.028826082 0.71787101 1.0882693e-38
-0.0082245348 -0.028787713 0.71782827 1.1250755e-38
-0.0052043884 -0.028783362 0.71812558 1.1250395e-38
-0.0021575957 -0.028849134 0.71887594 1.115748e-38
0.00010867097 -0.028098922 0.71941054 1.097309e-38
-0.015500129 -0.025531981 0.71914482 7.844225e-39
-0.012785017 -0.025766319 0.71781355 9.0387899e-39
-0.010509845 -0.02576148 0.71731317 9.8678247e-39
-0.008221182 -0.025749454 0.71712905 9.9600189e-39
-0.0049473909 -0.025985032 0.71734327 1.0789418e-38
-0.0021638197 -0.025768492 0.71790487 1.0789059e-38
0.00088567776 -0.025821788 0.71901751 1.0512472e-38
0.0031293829 -0.025072569 0.71994537 9.8674589e-39
-0.015698439 -0.02275585 0.71908247 7.4743677e-39
-0.012779192 -0.022729816 0.71769875 7.6565827e-39
-0.010500773 -0.022713412 0.71711719 7.8406096e-39
-0.0021730226 -0.022714721 0.71735489 8.2083089e-39
0.00084691233 -0.022745769 0.71839744 9.6830761e-39
0.0031109832 -0.022775466 0.71947926 9.6827103e-39
-0.015736112 -0.019737633 0.7192167 7.2892533e-39
-0.01276925 -0.019706352 0.71792716 7.4718285e-39
-0.010511368 -0.019688023 0.71727747 7.287796e-39
-0.0089703007 -0.018928431 0.71707523 7.287796e-39
-0.0021693427 -0.019689305 0.7172429 8.3012234e-39
0.00086862053 -0.019717552 0.71814406 9.2224581e-39
0.0038945016 -0.019751819 0.7194913 9.2217322e-39
-0.015562502 -0.016967369 0.71950418 7.4721971e-39
-0.012780989 -0.016687792 0.71835452 7.2874358e-39
-0.010512898 -0.016668973 0.71766931 7.2874358e-39
-0.0082201408 -0.016663397 0.71723884 7.1952402e-39
-0.0049404483 -0.016407685 0.71710575 7.1959591e-39
-0.0021601308 -0.016668255 0.71740216 8.6700046e-39
0.00085423433 -0.016686304 0.7181896 8.9462313e-39
0.0038961661 -0.016715324 0.71939164 8.9458684e-39
-0.015112519 -0.013683082 0.71972084 6.8282626e-39
-0.012790293 -0.013666919 0.71882212 6.8278996e-39
-0.010496138 -0.013656139 0.71813947 6.9200953e-39
-0.008226105 -0.013646138 0.71767288 6.9200953e-39
-0.0051964847 -0.013642204 0.71744919 7.1966794e-39
-0.0021685392 -0.013647281 0.71769148 9.0391472e-39
0.00084642717 -0.013659067 0.71834874 8.9465914e-39
0.0038805252 -0.013677504 0.71940446 8.6703619e-39
-0.015100193 -0.010653283 0.71988106 7.0130126e-39
-0.012821162 -0.010641542 0.71908349 6.7364243e-39
-0.010502522 -0.010629835 0.71844745 6.8286185e-39
-0.0082284026 -0.010623761 0.71799839 7.0130098e-39
-0.0051993057 -0.010620493 0.71775639 7.9338843e-39
-0.0021702908 -0.010623631 0.71791267 9.1313442e-39
0.00085913663 -0.0106318 0.71845168 9.1313428e-39
0.0038979463 -0.01064636 0.71935111 8.5781677e-39
-0.01509935 -0.0076210229 0.71967751 8.1197203e-39
-0.012800989 -0.0076089525 0.71901816 7.4739907e-39
-0.010502467 -0.0075956183 0.71845412 7.1048467e-39
-0.0082276054 -0.0075924308 0.718045 8.2115515e-39
-0.0051999581 -0.0075930655 0.7178008 8.8569196e-39
-0.0021719625 -0.0075946935 0.71792585 8.9483935e-39
0.00085507485 -0.0075972006 0.71834719 8.5788921e-39
0.0038939873 -0.007607976 0.71907729 8.025717e-39
0.0061845933 -0.0076224986 0.71976411 7.4721858e-39
-0.018117011 -0.0038147247 0.71967602 9.5962993e-39
-0.015845453 -0.0045847492 0.71931517 8.3966743e-39
-0.012790107 -0.0045747668 0.71852338 8.3044759e-39
-0.010492167 -0.0045527602 0.71804792 8.6725381e-39
-0.008225251 -0.0045590475 0.71769714 8.4877867e-39
-0.0051986724 -0.0045734202 0.71746755 7.8438564e-39
-0.0021714303 -0.0045618606 0.71755725 7.475797e-39
0.00085323281 -0.0045582457 0.71789271 7.3821566e-39
0.0038889127 -0.0045679747 0.7184608 6.6449531e-39
0.0069199051 -0.004557759 0.7191878 6.4612821e-39
0.0099850772 -0.0038545867 0.71959466 5.9106349e-39
0.022889772 -0.0038500261 0.71986759 6.9273176e-39
0.02516317 -0.0038037994 0.71956754 6.3741438e-39
0.028453942 -0.0042999368 0.71950215 7.8485452e-39
0.031239595 -0.0045940052 0.71947414 8.1247719e-39
0.034280892 -0.0045836009 0.71945947 6.4666925e-39
0.037069645 -0.0043179444 0.71950591 5.6372948e-39
0.040382553 -0.0038230326 0.71970952 5.361431e-39
-0.027222028 -0.00073224009 0.72000653 2.6989373e-39
-0.024961723 -0.0008002969 0.71975416 5.5544823e-39
-0.021668814 -0.0013116354 0.71948773 4.7200371e-39
-0.018868558 -0.0015508516 0.71901339 5.3603604e-39
-0.015813202 -0.0015397514 0.71828878 7.755279e-39
-0.012766887 -0.0015334515 0.71758491 9.871817e-39
-0.010493615 -0.0022893453 0.71743125 1.1987631e-38
-0.0082293376 -0.0023202307 0.71714288 1.1803595e-38
-0.0014123233 -0.0022973474 0.717031 5.8224175e-39
0.00085908081 -0.0023017102 0.71727192 5.5458321e-39
0.0038863432 -0.0015422251 0.71744013 4.2583358e-39
0.0069214534 -0.0015508392 0.71795648 3.5218484e-39
0.0099597266 -0.0015600824 0.71841294 3.6147643e-39
0.012995124 -0.0015558045 0.71870643 3.800236e-39
0.016030498 -0.0015679027 0.71878302 3.7091221e-39
0.01906129 -0.0015458382 0.71869129 3.3421403e-39
0.022089355 -0.0015476694 0.71846771 3.2506663e-39
0.025115207 -0.0015218486 0.71819395 2.9744438e-39
0.028139409 -0.0014988087 0.71795154 2.698217e-39
0.031166511 -0.0015091386 0.71784031 2.3283583e-39
0.034206718 -0.0015274419 0.71793014 1.6829889e-39
0.037251074 -0.0015107623 0.71821362 2.0510511e-39
0.040322226 -0.0015368315 0.71865839 2.4194693e-39
0.043394543 -0.0015313238 0.71923208 2.6031403e-39
0.046466723 -0.00082029554 0.71938783 2.5120251e-39
0.049533438 -0.00081339391 0.71977937 2.5131041e-39
-0.033243477 0.0016344633 0.71939373 1.3370531e-38
-0.030966511 0.0015943361 0.71908367 6.3734137e-39
-0.02794474 0.001515588 0.71873367 2.4209141e-39
-0.024915095 0.0014770218 0.71844846 5.8289084e-39
-0.021874504 0.0014718421 0.71806467 6.6525482e-39
-0.019081807 0.0012340969 0.71769923 9.3262116e-39
-0.015789311 0.00073348382 0.71723008 1.0889562e-38
0.037961107 0.00074917148 0.71718395 1.7762621e-39
0.040258542 0.00074434438 0.71754581 1.7762621e-39
0.043309167 0.0014804795 0.71765792 2.5138243e-39
0.046371944 0.0014875585 0.71810591 3.4346988e-39
0.049428154 0.0014822573 0.7183454 4.0789808e-39
0.052462868 0.0015186046 0.71837127 4.4466802e-39
0.055505056 0.0015187784 0.71836799 4.353044e-39
0.058570888 0.0014909373 0.71853954 4.8122187e-39
0.06165988 0.0014863065 0.71899462 4.4423558e-39
0.064733669 0.0022351481 0.71915513 4.8060908e-39
0.067095868 0.002216001 0.71980351 3.7008264e-39
-0.033250511 0.0044259508 0.7178728 1.3738232e-38
-0.031197464 0.0042416891 0.7176187 8.4910307e-39
-0.027890086 0.0038007244 0.71741903 3.1574001e-39
-0.02562103 0.0037648233 0.71717304 1.016319e-38
0.061488874 0.0038470346 0.71739531 8.0282449e-39
0.064861856 0.0042829043 0.71788847 8.4848944e-39
0.067718074 0.0045294422 0.71848994 8.5756467e-39
0.070563316 0.0048044012 0.71910083 7.8391607e-39
0.073924951 0.005299882 0.71954972 6.3658341e-39
0.06831678 0.0068843653 0.71727729 1.0137915e-38
0.070893295 0.0073803463 0.71757907 1.0596365e-38
0.073751621 0.0076026274 0.71801788 1.0319418e-38
0.076864831 0.0075741839 0.71845603 9.0319305e-39
0.07993377 0.0076087695 0.71872205 6.6409776e-39
0.082695059 0.0080048256 0.71913582 6.7349767e-39
0.076711856 0.0098529579 0.71707547 1.0777507e-38
0.079747781 0.0099362433 0.71733463 1.0777866e-38
0.082821883 0.010000194 0.71784377 1.0686755e-38
0.085728317 0.010891254 0.7181018 9.5836666e-39
0.088415198 0.011401517 0.71912301 8.296906e-39
0.088804424 0.013149032 0.71760154 9.7662431e-39
0.043369714 0.047795285 0.71786875 1.1168279e-39
0.046455521 0.047837023 0.71856171 9.3243661e-40
0.049501576 0.047930367 0.71857518 1.0246322e-39
0.052480649 0.04794316 0.71771169 9.3243661e-40
0.064634934 0.047820475 0.7174325 2.127733e-39
0.068019383 0.047523681 0.71798903 3.5052584e-39
0.070823953 0.047287919 0.71819997 4.5165209e-39
0.073847957 0.047282904 0.71801847 5.7096438e-39
0.076901108 0.047878183 0.71813691 6.4439621e-39
0.079870507 0.047724396 0.71735603 6.8127418e-39
0.082977779 0.048140142 0.71778136 6.9049374e-39
0.022851309 0.050809506 0.71715099 1.2083004e-39
0.025136726 0.05080843 0.71754265 1.3004961e-39
0.028187977 0.050831512 0.71798724 1.1164649e-39
0.031233914 0.050766032 0.71862125 9.3279254e-40
0.034029815 0.049881019 0.71827906 8.4095985e-40
0.037404519 0.049578637 0.7191959 8.4060111e-40
0.05561861 0.049284872 0.71876782 1.1161048e-39
0.058610141 0.049302481 0.71817672 1.2997744e-39
0.06166622 0.049331915 0.71836042 2.1266498e-39
0.064762458 0.049355578 0.71900904 4.5150803e-39
0.067128234 0.049470905 0.71970934 5.3415914e-39
-0.024955451 0.052402437 0.71930754 3.052576e-39
-0.021897558 0.052401479 0.71852946 2.9553329e-39
-0.01885202 0.052332353 0.71824163 2.0337423e-39
-0.015822327 0.052377451 0.71841133 2.4947232e-39
-0.012793625 0.052481368 0.71854579 2.9556986e-39
-0.010516045 0.052494328 0.71834493 2.7713045e-39
-0.0082234954 0.052270196 0.71749723 2.402522e-39
-0.0059461351 0.052180111 0.71710014 2.3103264e-39
-0.0014068568 0.052128073 0.7171371 1.9415439e-39
0.00086904102 0.05226431 0.71769965 2.402522e-39
0.0039104894 0.052421521 0.71864748 1.7589533e-39
0.0069587664 0.0525948 0.71926254 1.2994171e-39
0.010001191 0.052561831 0.7195493 1.2997772e-39
0.013040618 0.052482352 0.71966141 1.3919728e-39
0.01532702 0.052489776 0.71991825 1.2083004e-39
-0.015666069 -0.037061401 0.72264749 1.3001387e-38
-0.012865264 -0.037395544 0.72201407 1.3092865e-38
-0.0098064821 -0.037466373 0.72204477 1.3092508e-38
-0.0075045149 -0.037395 0.72222322 1.2908117e-38
-0.005218355 -0.037391331 0.72249717 1.2540413e-38
-0.0029566172 -0.037346609 0.722969 1.2448218e-38
-0.01788483 -0.034144092 0.72287333 4.712826e-39
-0.015850257 -0.034997858 0.72152281 1.1529874e-38
-0.012825569 -0.035004161 0.72069085 1.2633332e-38
-0.0097850775 -0.035066172 0.72063988 1.2632612e-38
-0.0074912719 -0.035040189 0.72083598 1.2540415e-38
-0.0052047647 -0.035048656 0.72116214 1.2263826e-38
-0.0021526129 -0.035092033 0.72187591 1.198724e-38
0.00013135602 -0.034338403 0.72236621 1.1618457e-38
-0.016639318 -0.031965602 0.72109109 4.0721509e-39
-0.0019106413 -0.032205395 0.72047025 1.1710653e-38
0.00087417761 -0.031986512 0.72143763 1.1250035e-38
0.0031102444 -0.031213667 0.7222445 1.0789415e-38
-0.016603082 -0.028886376 0.72043371 3.3302727e-39
0.0011275493 -0.029150739 0.72027421 1.0880892e-38
0.0038882431 -0.028926194 0.72164798 1.0328077e-38
0.006139366 -0.02818743 0.72289538 8.9465844e-39
-0.018324409 -0.025937263 0.72183543 7.1081187e-39
-0.016578516 -0.026591437 0.72008038 4.8028734e-39
0.0041466705 -0.026115764 0.72081929 9.590872e-39
0.0061773122 -0.025906531 0.72214144 9.0376983e-39
-0.018834691 -0.022834318 0.72175306 6.738983e-39
0.0046497039 -0.022808881 0.72031927 9.2217322e-39
0.0069590476 -0.022864895 0.72188854 8.8533098e-39
-0.018839071 -0.019784525 0.72140747 5.6322768e-39
0.006937467 -0.019798301 0.7213223 8.8533098e-39
0.0092281019 -0.019832978 0.72277737 8.4845273e-39
-0.018901976 -0.016755518 0.72145373 6.0021243e-39
-0.016607776 -0.015970368 0.72017461 7.0133881e-39
0.0069386945 -0.016749108 0.72093976 8.4856077e-39
0.0097590787 -0.01653434 0.72245896 8.3930547e-39
-0.021266665 -0.013750789 0.72274417 2.3280038e-39
-0.018918952 -0.013716541 0.72152585 5.0837679e-39
-0.016616723 -0.013695724 0.72035265 6.2783398e-39
0.0069374926 -0.013704421 0.72075278 8.0249925e-39
0.010015315 -0.013738715 0.72214931 8.0246351e-39
0.01229868 -0.012981538 0.72294056 8.3015836e-39
0.034442492 -0.012983535 0.72292668 1.0329522e-38
0.037498999 -0.012990899 0.72290677 9.499761e-39
-0.021752158 -0.010438982 0.72239232 1.7762719e-39
-0.018909521 -0.010667636 0.72132099 5.4536252e-39
-0.016611179 -0.010657187 0.72043502 6.371613e-39
0.0069404319 -0.010661175 0.72045767 7.748407e-39
0.0099926554 -0.010675148 0.72162813 7.4725418e-39
0.012804355 -0.010436295 0.72246909 8.1175538e-39
0.015353941 -0.0099305427 0.72293776 1.069867e-38
0.026033798 -0.0099502243 0.72276175 1.1252197e-38
0.028575884 -0.01041615 0.72255337 1.1160001e-38
0.031361502 -0.010656436 0.72227448 1.1159642e-38
0.034398701 -0.010667625 0.72202384 1.0329522e-38
0.03745231 -0.010673659 0.72207314 9.3150138e-39
0.040528849 -0.010692313 0.72241187 9.4072095e-39
0.043606851 -0.0099393269 0.72270775 9.6837964e-39
-0.027327541 -0.006847892 0.72300571 2.7875428e-39
-0.024783267 -0.0073759994 0.72249156 5.645243e-39
-0.021969119 -0.0076262946 0.72178894 2.6946213e-39
-0.018891303 -0.0076121115 0.7208783 7.1091795e-39
-0.016615659 -0.0076195728 0.72015554 8.2133592e-39
0.0076931263 -0.0076155006 0.72025496 6.9204498e-39
0.0099953134 -0.0076342844 0.7209307 7.0122881e-39
0.01305305 -0.0076476377 0.72170198 8.487421e-39
0.016113503 -0.0076755821 0.72218508 1.1713181e-38
0.019155694 -0.0076366374 0.72230804 1.1897212e-38
0.022198817 -0.0076657832 0.72208774 1.2081603e-38
0.025234848 -0.007642291 0.72168821 1.1805373e-38
0.0282712 -0.0075999051 0.72126317 1.1529144e-38
0.031301722 -0.0076184077 0.72093707 1.1344754e-38
0.034343626 -0.0076331333 0.72080606 1.0054015e-38
0.037395027 -0.0076194461 0.7209326 9.131703e-39
0.040466197 -0.0076295384 0.72129029 8.9473117e-39
0.043545362 -0.0076254131 0.72184348 9.5926797e-39
0.04637365 -0.0073684556 0.7223714 9.8692666e-39
0.048935186 -0.0068426626 0.72274756 9.6852383e-39
-0.03044018 -0.0039766687 0.72236466 3.9763343e-39
-0.028102931 -0.0046202042 0.72225744 2.6045879e-39
-0.025016222 -0.0045877155 0.72157341 3.5265427e-39
-0.02194663 -0.0045784935 0.72086954 4.8122369e-39
-0.019140005 -0.0048261881 0.72027546 8.4910335e-39
0.0099842688 -0.0053510391 0.7202096 6.7367872e-39
0.01304884 -0.0046619871 0.72050399 8.1226083e-39
0.016077286 -0.0046198689 0.72076076 9.3215103e-39
0.019114554 -0.0046023261 0.72070134 9.1374805e-39
0.021899931 -0.0048428508 0.72057617 9.8739638e-39
0.025193814 -0.0053289039 0.72044355 1.2084851e-38
0.027464639 -0.0053406544 0.72016722 1.1993372e-38
0.038110439 -0.0053274538 0.72006273 7.8460172e-39
0.040401891 -0.0053109643 0.7203539 8.4899447e-39
0.043470059 -0.0045658825 0.72060055 7.5705164e-39
0.046555739 -0.0045598173 0.7212438 8.0311316e-39
0.049657803 -0.0045746039 0.72187304 8.031133e-39
0.052759919 -0.0045958031 0.722399 7.8467417e-39
0.055809621 -0.0038331561 0.72227108 6.5588882e-39
0.058871131 -0.0037898473 0.72246474 6.0060703e-39
0.061940961 -0.0037566726 0.7227028 5.8206001e-39
0.064248443 -0.0037352371 0.72292173 5.7284044e-39
-0.033316843 -0.0013735695 0.7213406 1.3278334e-38
-0.031040313 -0.0014382883 0.7209813 6.2815796e-39
-0.028275173 -0.0017749082 0.72078943 2.8822481e-39
-0.025006607 -0.0023537616 0.72055709 3.8949637e-39
-0.022719312 -0.0023555716 0.72016799 3.0605171e-39
0.04649739 -0.0022911644 0.7201708 3.0633982e-39
0.049583398 -0.002305927 0.72064346 3.0644772e-39
0.052630026 -0.0015654031 0.72051734 2.7889707e-39
0.055675633 -0.0015145491 0.72062749 2.8811635e-39
0.058726192 -0.0014722382 0.72074968 2.9726361e-39
0.061814878 -0.0014937347 0.72109115 3.2474209e-39
0.064911887 -0.001491902 0.72156209 3.2463391e-39
0.068032436 -0.0015033544 0.72216851 2.9697522e-39
0.071139395 -0.00076381071 0.72246969 2.600255e-39
0.064816043 0.0007333135 0.72018516 2.7868057e-39
0.068203479 0.0011915896 0.72070146 3.0601472e-39
0.07104937 0.0014773344 0.72126651 2.3247471e-39
0.07416153 0.001531282 0.72203702 2.1407174e-39
0.076494284 0.0022444471 0.72207969 1.4957095e-39
0.078851745 0.0022457289 0.72258043 1.3113183e-39
0.081140377 0.0023401286 0.72296256 1.3113183e-39
0.071666293 0.0038084462 0.72003669 4.06816e-39
0.074018225 0.0038074122 0.72058928 2.9643376e-39
0.077103205 0.004539385 0.72066516 2.4122526e-39
0.079919942 0.0048211352 0.72084796 1.7694098e-39
0.081951126 0.0044557545 0.72161567 1.2180381e-39
0.084879629 0.0054429295 0.72238666 1.0343713e-39
0.083875045 0.0069744335 0.72042221 1.3091505e-39
0.085467353 0.0077421898 0.7209112 2.1360287e-39
0.087351277 0.0082803722 0.72225296 2.0395058e-39
0.087059505 0.0097954497 0.72001117 7.56042e-39
0.088858619 0.0098637398 0.72232193 3.5124723e-39
0.040490776 0.049535252 0.72053206 9.3243661e-40
0.043605369 0.04957293 0.72174901 1.0246322e-39
0.046722136 0.049667921 0.72260743 8.4024098e-40
0.049766298 0.049845617 0.72250497 1.1157489e-39
0.052705802 0.049727079 0.72095335 1.0239106e-39
0.068726316 0.049588524 0.72027439 5.8004073e-39
0.071067743 0.049615391 0.72078651 6.0762698e-39
0.074188478 0.049671073 0.7213456 6.2592135e-39
0.07650765 0.049691372 0.72153473 6.4432362e-39
0.078787476 0.049696341 0.72134221 6.2588449e-39
0.081945486 0.049802899 0.72207481 6.4443152e-39
-0.02730721 0.052574482 0.72103667 2.6848752e-39
0.016855134 0.052515656 0.72016555 1.1161048e-39
0.019155702 0.052581895 0.72071731 1.1161048e-39
0.022222236 0.052642215 0.72133553 1.0239092e-39
0.025279056 0.052699525 0.72143561 1.2083004e-39
0.028318821 0.052631922 0.72114682 1.1161048e-39
